# .PCD v0.7 - Point Cloud Data file format
VERSION 0.7
FIELDS x y z
SIZE 4 4 4
TYPE F F F
COUNT 1 1 1
WIDTH 1513
HEIGHT 1
VIEWPOINT 0 0 0 1 0 0 0
POINTS 1513
DATA ascii
-4.946774 1.3942012 -0.7223084
-4.940546 1.3924459 -0.60026681
-4.9354563 1.3910114 -0.4783935
-4.9352126 1.3909427 -0.35854828
-5.2001209 1.4656045 -2.4054408
-4.9342017 1.3906578 -0.23906618
-5.55265 1.5649616 -2.4096644
-4.9420819 1.3928788 -0.11921065
-5.9711704 1.6829176 -2.422502
-4.9203138 1.3867437 0
-5.2784095 1.4876695 -1.9960296
-5.3033428 1.4946966 -1.8618004
-4.9523854 1.3957827 -1.605545
-4.9442773 1.3934975 -1.3447652
-4.9657001 1.3995354 -1.2224253
-4.9596624 1.3978336 -1.0952789
-4.943069 1.393157 -0.96760494
-4.9436483 1.4110329 -0.84464794
-4.9421234 1.4105977 -0.7223084
-4.9397225 1.4099125 -0.60073149
-4.9327316 1.4079171 -0.47857931
-4.9401655 1.4100388 -0.35924584
-5.1987457 1.4838438 -2.4070675
-4.9372473 1.4092059 -0.23943885
-4.9374356 1.4092598 -0.11921065
-4.9233809 1.4052482 0
-5.2915192 1.5103235 -2.0028701
-5.2837806 1.5081147 -1.8566785
-4.9532371 1.4137698 -1.6073322
-4.9471059 1.4120198 -1.4752113
-4.9433494 1.4109477 -1.3457781
-4.9666462 1.4175971 -1.2238086
-4.9587622 1.4153469 -1.0961106
-4.9403119 1.4100807 -0.9679752
-4.9448786 1.4282012 -0.84562063
-4.9395704 1.426668 -0.72258681
-4.9314508 1.424323 -0.60026681
-4.9301968 1.4239607 -0.47876507
-4.9433784 1.4277679 -0.35980392
-5.1993241 1.5016912 -2.409508
-4.9347148 1.4252657 -0.23953199
-4.9406676 1.4269849 -0.11939634
-4.924706 1.4223748 0
-5.2704973 1.5222478 -1.9967136
-5.4355659 1.5699236 -1.9117385
-4.9561081 1.4314444 -1.6097152
-4.9481864 1.4291564 -1.4768651
-4.9407516 1.4270091 -1.3462847
-4.9640379 1.4337348 -1.2242699
-4.950532 1.4298339 -1.0952789
-4.9377456 1.4261409 -0.96834546
-4.1692324 1.2041757 0.81763172
-4.9493341 1.4482236 -0.84724188
-4.9421635 1.4461254 -0.72370017
-4.9359822 1.4443167 -0.60142839
-4.9347525 1.4439567 -0.47969398
-4.9383645 1.4450138 -0.35980392
-5.1817756 1.5162382 -2.4038136
-4.9373794 1.4447254 -0.23990466
-4.9414134 1.4459058 -0.1195356
-4.9312282 1.4429255 0
-5.2976193 1.5501351 -2.0090263
-5.4700608 1.6005932 -1.9258238
-4.9510813 1.4487348 -1.6097152
-4.9505482 1.4485787 -1.4790701
-4.9487391 1.4480494 -1.3498303
-4.9627385 1.4521457 -1.2251921
-4.9567761 1.4504012 -1.0977738
-4.9459424 1.4472311 -0.97093767
-4.9390831 1.4620849 -0.84626919
-4.9413948 1.4627692 -0.72425693
-4.9314208 1.4598167 -0.60142839
-4.926373 1.4583224 -0.47932243
-4.9395399 1.4622201 -0.36022243
-5.1839948 1.5345845 -2.4070675
-4.932816 1.4602298 -0.23990466
-4.9425983 1.4631256 -0.11967487
-5.9414845 1.7588193 -2.4195921
-4.9266706 1.4584105 0
-5.2620878 1.5577018 -1.9973975
-5.306942 1.5709798 -1.8701235
-4.9611511 1.4686174 -1.6144812
-4.9478164 1.4646702 -1.4796213
-4.9478755 1.4646876 -1.3508432
-4.9656162 1.4699392 -1.2270365
-4.9578233 1.4676324 -1.0990213
-4.9357171 1.4610885 -0.96982676
-4.9439182 1.480425 -0.84789032
-4.9462609 1.4811267 -0.72564858
-4.9344215 1.4775814 -0.60235757
-4.9332128 1.4772195 -0.48043716
-4.9368324 1.4783034 -0.36036196
-5.1756473 1.5498149 -2.4054408
-4.9396877 1.4791583 -0.24046367
-5.5123739 1.6506456 -2.4034975
-4.9437232 1.4803668 -0.11981413
-5.9377141 1.7780111 -2.4203196
-4.9258966 1.4750286 0
-4.9961104 1.4960537 -1.8982117
-4.9619989 1.4858392 -1.6162684
-4.9505577 1.4824132 -1.4818265
-4.9395428 1.4791149 -1.3498303
-4.9665666 1.4872069 -1.2284198
-4.9550614 1.4837619 -1.0994371
-4.9367514 1.478279 -0.97093767
-4.9449091 1.4976647 -0.84886307
-4.9434791 1.4972315 -0.72592694
-4.9335575 1.4942266 -0.60282212
-4.9342661 1.494441 -0.48099449
-4.9436212 1.4972746 -0.36119905
-5.1759987 1.5676547 -2.407881
-4.9311929 1.4935104 -0.24027735
-5.5106936 1.6690238 -2.4050393
-4.9428763 1.4970489 -0.11990698
-5.9338822 1.797195 -2.421047
-4.9193244 1.4899157 0
-5.0975089 1.5438825 -1.9385701
-5.0086341 1.516965 -1.7683262
-4.9591346 1.501973 -1.6168643
-4.9458761 1.4979575 -1.4818265
-4.945982 1.4979895 -1.3528693
-4.9637327 1.5033658 -1.228881
-4.9597378 1.5021558 -1.1015162
-4.9508929 1.4994769 -0.97464073
-4.9436898 1.5152112 -0.84951156
-4.9422741 1.5147773 -0.72648364
-4.9342732 1.5123252 -0.60351902
-4.9368982 1.5131297 -0.48173761
-4.951982 1.5177528 -0.36217561
-5.1620378 1.5821335 -2.4038136
-4.9491343 1.51688 -0.24139534
-5.503365 1.6867483 -2.4042685
-4.9493546 1.5169475 -0.12018551
-4.9200935 1.507979 0
-5.2073617 1.5960251 -1.9823488
-5.3242254 1.6318432 -1.8816476
-4.9632535 1.5212073 -1.6198429
-4.9500723 1.5171674 -1.4845829
-4.9446869 1.5155169 -1.3538822
-4.9643025 1.5215288 -1.2302644
-4.9603405 1.5203146 -1.1027638
-4.9477725 1.5164627 -0.97501099
-4.9518328 1.535689 -0.85178125
-4.9410067 1.5323317 -0.72704035
-4.942512 1.5327985 -0.60514516
-4.9394617 1.5318525 -0.48248076
-4.9526381 1.5359389 -0.36259416
-5.1515274 1.5976194 -2.4013731
-4.9498014 1.5350591 -0.24167484
-5.5030289 1.7066289 -2.4065809
-4.950026 1.5351287 -0.12032477
-4.9131551 1.523694 0
-5.1966553 1.6116147 -1.9802966
-5.5395713 1.7179617 -1.9597561
-4.9709458 1.5416166 -1.6240132
-4.945014 1.5335743 -1.4845829
-4.9451776 1.5336251 -1.3554018
-4.9703817 1.5414416 -1.233031
-4.9608769 1.538494 -1.1040112
-4.9427166 1.5328619 -0.97501099
-4.9469838 1.5512383 -0.85178125
-4.9475074 1.5514024 -0.72871041
-4.9376721 1.5483185 -0.60514516
-4.9460254 1.5509378 -0.48359546
-4.9496922 1.5520877 -0.36273366
-5.1552 1.6165292 -2.4054408
-4.9544859 1.5535908 -0.24214068
-5.502923 1.7255656 -2.4088936
-4.9547181 1.5536636 -0.12055688
-5.1551976 1.6165285 -2.1096864
-4.9083438 1.5391219 0
-5.5703058 1.746695 -1.9725608
-4.9660783 1.5572258 -1.6240132
-4.9438405 1.5502527 -1.4856855
-4.9366431 1.5479958 -1.3543887
-4.9692287 1.5582137 -1.2339532
-4.9560194 1.5540717 -1.1040112
-4.9453783 1.5507348 -0.97649223
-4.9496107 1.5691578 -0.85307819
-4.9482727 1.5687336 -0.72954541
-4.9384646 1.5656242 -0.60584205
-4.9430265 1.5670705 -0.48378125
-4.9523988 1.5700418 -0.36329171
-5.1518378 1.6332692 -2.4062541
-4.9476762 1.5685445 -0.2420475
-5.4904375 1.7406143 -2.4058101
-4.9555306 1.5710347 -0.12069614
-5.1323347 1.6270862 -2.1024115
-4.909204 1.5563477 0
-5.1685114 1.6385552 -1.9734563
-5.5792403 1.7687671 -1.9776827
-4.9702616 1.5757047 -1.626992
-4.9481087 1.5686816 -1.4884417
-4.9391332 1.5658362 -1.3564148
-4.9698744 1.5755819 -1.2353367
-4.9641662 1.5737723 -1.1069219
-4.9442291 1.5674517 -0.97723281
-4.946537 1.5853014 -0.8534025
-4.9489784 1.5860839 -0.73038048
-4.9429808 1.5841616 -0.60700357
-4.9418726 1.5838065 -0.48415282
-4.9569426 1.5886362 -0.36398929
-5.1484213 1.6500027 -2.4070675
-4.9503345 1.5865185 -0.24242018
-5.4831853 1.7572902 -2.4050393
-4.9581871 1.5890352 -0.12088183
-5.1165528 1.6397893 -2.0980468
-4.9080997 1.5729828 0
-5.1526003 1.651342 -1.969352
-5.5989175 1.7943809 -1.9866461
-4.9707417 1.5930587 -1.6287793
-4.9523106 1.5871518 -1.4911982
-4.9360323 1.5819347 -1.3569212
-4.9704599 1.5929685 -1.23672
-4.9573345 1.5887619 -1.1065061
-4.9486384 1.5859749 -0.97908431
-4.9468846 1.6035217 -0.85437524
-4.9455757 1.6030974 -0.73065889
-4.9433689 1.6023822 -0.60770053
-4.9346986 1.5995716 -0.48396701
-4.9497485 1.60445 -0.36384976
-5.1411834 1.6665033 -2.4062541
-4.9488468 1.6041577 -0.24260651
-5.4861054 1.778309 -2.4088936
-4.9509888 1.6048521 -0.12083541
-5.1004539 1.6533008 -2.0936818
-4.9047589 1.5898668 0
-5.1417322 1.6666812 -1.9672998
-5.592936 1.8129379 -1.9866461
-4.9726958 1.6118883 -1.6311622
-4.9433622 1.6023799 -1.4900956
-4.9436426 1.6024708 -1.3604667
-4.9670014 1.6100425 -1.2371811
-4.9576216 1.6070021 -1.1077535
-4.9470911 1.6035887 -0.97982496
-4.9474483 1.6208996 -0.85534787
-4.9480429 1.6210943 -0.73177224
-4.9420853 1.6191425 -0.60816509
-4.9334331 1.6163079 -0.48433858
-4.9541636 1.6230996 -0.36454734
-5.1202955 1.6775283 -2.3989327
-4.9475799 1.6209426 -0.24279284
-5.4804916 1.7955369 -2.4088936
-4.9611225 1.6253796 -0.12120678
-5.0846124 1.6658376 -2.0893171
-4.9111433 1.6090052 0
-5.1275406 1.679902 -1.9638796
-5.5980163 1.8340408 -1.9904875
-4.9766784 1.630476 -1.6341408
-4.9474382 1.6208963 -1.4928521
-4.9459381 1.6204047 -1.3624928
-4.969316 1.6280639 -1.2390256
-4.9581256 1.6243976 -1.109001
-4.9476323 1.6209599 -0.98093587
-4.9514127 1.6404004 -0.85696912
-4.9520397 1.6406082 -0.73316395
-4.9461174 1.638646 -0.6093266
-4.9356074 1.6351641 -0.4850817
-4.9506474 1.6401469 -0.36468685
-5.1199074 1.6962225 -2.4013731
-4.9478669 1.6392256 -0.24307235
-5.4692512 1.81196 -2.4065809
-4.9538074 1.6411937 -0.12116036
-5.0755229 1.6815181 -2.087862
-4.9171715 1.6290565 0
-5.1219416 1.6968966 -1.9638796
-5.5469379 1.8376976 -1.9744816
-4.9748693 1.6481715 -1.6353325
-4.9511604 1.640317 -1.4956083
-4.9423738 1.6374059 -1.3629993
-4.9675841 1.645758 -1.2399478
-4.9601398 1.6432917 -1.1106644
-4.9534235 1.6410666 -0.98315769
-4.9481068 1.6565732 -0.85729331
-4.9487405 1.6567852 -0.73344231
-4.9409456 1.6541756 -0.6093266
-4.9417763 1.6544539 -0.48619643
-4.9492545 1.6569574 -0.36496589
-5.1232166 1.7151982 -2.4054408
-4.9502707 1.6572976 -0.24344501
-4.958107 1.6599212 -0.12139246
-5.0666819 1.6962709 -2.0864069
-4.9120302 1.6444951 0
-5.1023283 1.7082049 -1.9584073
-5.4602842 1.8280448 -1.945671
-4.9750981 1.6656096 -1.6371197
-4.9496298 1.657083 -1.4967109
-4.9463797 1.6559949 -1.3655318
-4.9697719 1.6638263 -1.2417923
-4.9623737 1.6613497 -1.1123277
-4.9538355 1.658491 -0.98426867
-4.9466171 1.6733751 -0.85794187
-4.9547668 1.6761321 -0.73511237
-4.9451323 1.6728728 -0.61048806
-4.9440999 1.6725235 -0.48693955
-4.9591436 1.6776128 -0.36608195
-5.1126108 1.7295285 -2.4030004
-4.9526091 1.6754022 -0.24381767
-4.956656 1.676771 -0.12148531
-5.0525045 1.7091954 -2.0827696
-4.9049449 1.6592779 0
-5.1004972 1.7254307 -1.9597754
-5.4311814 1.8372968 -1.937348
-4.9734583 1.6824552 -1.6383113
-4.9516835 1.675089 -1.498916
-4.9484835 1.6740065 -1.3675578
-4.9626765 1.6788077 -1.2413312
-4.95157 1.6750505 -1.1110802
-4.9448767 1.6727864 -0.98352802
-4.9559798 1.6948774 -0.86053574
-4.9435596 1.6906298 -0.73427731
-4.9470773 1.6918328 -0.61141735
-4.946064 1.6914862 -0.48768273
-4.9535542 1.6940477 -0.36608195
-5.1137629 1.748837 -2.4062541
-4.9526978 1.6937549 -0.24409717
-4.9567442 1.6951388 -0.12162457
-5.0379949 1.7229254 -2.0791323
-4.912663 1.6800635 0
-5.0894132 1.7405097 -1.9577234
-5.4340234 1.8583617 -1.9405491
-4.9750781 1.7014086 -1.6406943
-4.9533782 1.6939877 -1.501121
-4.9465671 1.6916583 -1.3685708
-4.9699726 1.6996627 -1.244559
-4.964499 1.6977909 -1.1152384
-4.9486008 1.6923538 -0.98537946
-4.9540625 1.7125925 -0.86118424
-4.9454141 1.7096026 -0.73539072
-4.9451938 1.7095267 -0.61188191
-4.9460731 1.7098305 -0.48824003
-4.955451 1.7130724 -0.36664
-5.1182961 1.7693671 -2.411135
-4.9527183 1.7121277 -0.24437669
-5.4471378 1.8830459 -2.4073517
-4.954875 1.7128733 -0.12171742
-5.0304933 1.7390141 -2.0784049
-4.9165154 1.6996125 0
-5.0694032 1.752465 -1.952251
-5.40276 1.8677046 -1.9315859
-4.9766259 1.7203925 -1.6430771
-4.9495511 1.7110329 -1.5016725
-4.9500728 1.7112132 -1.3711033
-4.9698267 1.718042 -1.2459424
-4.9588413 1.7142445 -1.1152384
-4.9522495 1.7119657 -0.98723102
-4.952384 1.7294505 -0.86183274
-4.9474974 1.7277439 -0.73650414
-4.945425 1.7270201 -0.61257881
-4.9481969 1.7279882 -0.48898321
-4.9556952 1.7306067 -0.36705855
-5.0989122 1.7806203 -2.4046271
-4.9567451 1.7309732 -0.2448425
-4.9570198 1.7310693 -0.12190311
-5.0302815 1.7566533 -2.0805871
-4.9168158 1.7170293 0
-5.0709691 1.7708622 -1.954987
-5.3271012 1.8603076 -1.9066168
-4.978406 1.7385377 -1.6454601
-4.9532256 1.7297442 -1.5044287
-4.9464989 1.7273952 -1.3716098
-4.9699163 1.7355729 -1.2473258
-4.9663596 1.7343308 -1.1181492
-4.9505577 1.7288126 -0.98797166
-4.9559264 1.7491479 -0.86345392
-4.9417405 1.7441411 -0.73650414
-4.9471631 1.7460549 -0.61350799
-4.9461951 1.7457132 -0.48935476
-4.9480476 1.7463671 -0.36691904
-5.0912561 1.7969112 -2.4038136
-4.9528618 1.7480663 -0.24493569
-5.4487858 1.9230981 -2.4135184
-4.9569082 1.7494944 -0.12204237
-5.0209141 1.7720847 -2.0791323
-4.9205246 1.7366532 0
-5.0331688 1.7764097 -1.9426744
-5.3066087 1.872918 -1.9014949
-4.9816155 1.7582146 -1.6484389
-4.9547138 1.7487198 -1.5066339
-4.9498653 1.7470087 -1.3741423
-4.9714742 1.7546352 -1.2491702
-4.966115 1.7527438 -1.1193967
-4.9503574 1.7471824 -0.98908257
-4.9578433 1.7673585 -0.86475086
-4.9474306 1.7636466 -0.7381742
-4.9453964 1.7629215 -0.6139726
-4.9500651 1.7645859 -0.4902837
-4.9519339 1.7652519 -0.36761662
-5.1010756 1.8184175 -2.411135
-4.9529915 1.7656289 -0.24521519
-5.4375033 1.9383464 -2.4112062
-4.9551544 1.7664001 -0.12213521
-5.0135684 1.7872232 -2.0784049
-4.9169288 1.7527734 0
-5.013401 1.7871636 -1.937202
-5.2382331 1.8673111 -1.8790867
-4.981463 1.7757783 -1.6502262
-4.95644 1.7668583 -1.508839
-4.951643 1.7651483 -1.3761684
-4.9787693 1.7748182 -1.252398
-4.9568992 1.7670219 -1.118565
-4.9541006 1.7660242 -0.99093407
-4.9578371 1.7849311 -0.86572361
-4.9474559 1.7811935 -0.73900926
-4.9454403 1.780468 -0.61466956
-4.9463706 1.780803 -0.49046946
-4.9519949 1.7828279 -0.36803514
-4.9530592 1.783211 -0.24549469
-5.4261775 1.953544 -2.4088936
-4.9646311 1.7873771 -0.12250659
-5.0044227 1.8017029 -2.0769498
-4.9226885 1.7722769 0
-5.0112987 1.8041784 -1.9385701
-5.2430372 1.8876095 -1.8829281
-4.9974151 1.79918 -1.6573751
-4.959909 1.785677 -1.5115954
-4.9642777 1.7872498 -1.3812335
-4.978662 1.7924286 -1.2537814
-4.9660482 1.7878873 -1.1218916
-4.9577746 1.7849085 -0.99278563
-4.9611645 1.8047346 -0.86734486
-4.9545507 1.8023286 -0.74095768
-4.9413762 1.797536 -0.61490184
-4.9479241 1.7999179 -0.49121258
-4.9666805 1.806741 -0.36956981
-4.9602613 1.8044059 -0.24614686
-5.4179354 1.9708952 -2.4081225
-4.9661927 1.8065637 -0.12269227
-5.0036731 1.8201979 -2.0791323
-4.9205437 1.7899578 0
-5.0035224 1.8201432 -1.9378861
-5.2367492 1.9049847 -1.8829281
-5.0003929 1.8190048 -1.6603539
-4.9557672 1.8027711 -1.5121466
-4.9674149 1.8070083 -1.3837659
-4.9672046 1.8069317 -1.252398
-4.9656081 1.8063509 -1.1231391
-4.9592166 1.804026 -0.99426681
-4.9591746 1.8216738 -0.8679933
-4.9451451 1.8165203 -0.74040097
-4.9450274 1.8164771 -0.61606336
-4.9497218 1.8182014 -0.49195576
-4.962852 1.8230246 -0.36970931
-4.9545674 1.8199815 -0.24614686
-5.4186459 1.9904532 -2.4112062
-4.9661231 1.8242261 -0.12283154
-4.9996786 1.8365524 -2.0798597
-4.9167728 1.8060982 0
-5.0136561 1.8416867 -1.9440426
-5.236074 1.9233884 -1.8848488
-5.0143661 1.8419476 -1.6669072
-4.9572973 1.8209842 -1.5143517
-4.9635291 1.8232734 -1.3842723
-4.9761176 1.8278974 -1.2560871
-4.9709263 1.8259906 -1.125634
-4.9553685 1.8202758 -0.99463713
-4.9589782 1.8393024 -0.86896604
-4.9579835 1.8389335 -0.74318439
-4.9448843 1.834075 -0.61676025
-4.9495859 1.8358189 -0.49251306
-4.9627123 1.8406874 -0.37012786
-4.9600644 1.8397055 -0.24670586
-5.4158268 2.0087492 -2.4127476
-4.9641175 1.8412086 -0.12292439
-5.0008717 1.8548408 -2.0827696
-4.9223261 1.825708 0
-5.0131316 1.8593881 -1.9460945
-5.2406645 1.9437809 -1.8886901
-5.0407763 1.8696415 -1.6776307
-4.9569597 1.8385538 -1.5160056
-4.9686608 1.8428938 -1.3873113
-4.9776492 1.8462275 -1.2579315
-4.9706678 1.8436382 -1.1268815
-4.9588399 1.8392513 -0.99648869
-4.958396 1.8578146 -0.86993873
-4.9500036 1.85467 -0.74290609
-4.9480758 1.8539476 -0.61792177
-4.9509306 1.8550174 -0.49325624
-4.9640541 1.8599344 -0.37068591
-4.9632902 1.8596483 -0.24717169
-5.4039512 2.0247552 -2.4104352
-4.9636006 1.8597647 -0.12306364
-4.9999266 1.8733753 -2.0849521
-4.9199901 1.8434246 0
-5.019258 1.8806183 -1.9508829
-5.3122597 1.9904003 -1.9168606
-4.9544358 1.8563308 -1.5171081
-4.9715819 1.8627551 -1.3898439
-4.9824338 1.8668211 -1.2606982
-4.9773507 1.8649164 -1.1297923
-4.9563942 1.8570645 -0.99722922
-4.9617648 1.8768741 -0.87155998
-4.9571195 1.8751169 -0.74485451
-4.9570909 1.8751062 -0.61978018
-4.9525285 1.8733803 -0.49399936
-4.9619188 1.8769324 -0.37096494
-4.9630299 1.8773527 -0.24745119
-5.392385 2.0397637 -2.4081225
-4.9633446 1.8774716 -0.12320291
-4.9992442 1.8910514 -2.0871346
-4.9179163 1.8602875 0
-5.0238719 1.9003671 -1.954987
-5.4672508 2.068083 -1.9751217
-5.5053854 2.0825081 -1.8366958
-4.9611669 1.8766479 -1.520967
-4.9620857 1.8769956 -1.3888309
-4.9783645 1.8831533 -1.2611593
-4.9751267 1.8819284 -1.1306238
-4.9560504 1.8747126 -0.99834013
-4.9592009 1.8947251 -0.87220842
-4.9601254 1.8950784 -0.74624628
-4.9527011 1.892242 -0.62001246
-4.9462891 1.8897922 -0.49399936
-4.9593954 1.8947995 -0.37124392
-4.969841 1.8987905 -0.24810335
-4.9626951 1.8960602 -0.12334217
-4.998167 1.9096128 -2.0893171
-4.9154568 1.8780123 0
-5.0245652 1.9196986 -1.9577234
-5.5198512 2.1089287 -1.8438447
-4.962101 1.8958333 -1.5231721
-4.9739084 1.9003444 -1.393896
-4.9775467 1.9017345 -1.2625426
-4.9779963 1.9019063 -1.1327031
-4.9608231 1.895345 -1.000562
-4.9734788 1.9181075 -0.8757751
-4.9596901 1.9127897 -0.74708122
-4.9559989 1.9113661 -0.62117392
-4.9477596 1.9081886 -0.49474248
-4.9608641 1.9132425 -0.371802
-4.9452109 1.9072056 -0.24717169
-5.3859887 2.077199 -2.4112062
-4.9623103 1.9138001 -0.12348144
-5.0130014 1.9333501 -2.0980468
-4.9207287 1.8977636 0
-5.0202627 1.9361506 -1.9584073
-5.4820676 2.1142535 -1.9853655
-5.5274491 2.1317558 -1.8486108
-4.9650888 1.9148718 -1.5259285
-4.9733295 1.9180499 -1.3954154
-4.9842577 1.9222646 -1.2657704
-4.9774723 1.9196477 -1.1339505
-4.9566774 1.9116278 -1.0009322
-4.965251 1.9338734 -0.87545085
-4.966239 1.9342581 -0.7490297
-4.9514847 1.9285116 -0.62140626
-4.952538 1.9289219 -0.49585721
-4.95821 1.9311309 -0.37208101
-4.953752 1.9293947 -0.24791701
-5.3756309 2.0937088 -2.4096644
-4.9671149 1.9345994 -0.12375997
-5.0256586 1.9574009 -2.1060491
-4.9274535 1.919152 0
-5.0313272 1.9596088 -1.9652478
-5.4609017 2.12692 -1.9802437
-5.5399189 2.1576958 -1.8551639
-4.9587116 1.9313263 -1.5259285
-4.9741526 1.9373404 -1.3974414
-4.9796691 1.9394889 -1.2662315
-4.9765472 1.938273 -1.1351979
-4.9576364 1.9309075 -1.0024135
-4.9720082 1.954517 -0.87772053
-4.9675102 1.9527488 -0.75014311
-4.9601912 1.9498717 -0.62326467
-4.9538665 1.9473854 -0.49660033
-4.9632597 1.9510778 -0.3729181
-4.9532442 1.9471407 -0.24819651
-5.3673096 2.1099114 -2.4088936
-4.9665956 1.9523892 -0.12389924
-5.0298872 1.9772693 -2.1104138
-4.9251232 1.9360862 0
-5.0356407 1.979531 -1.969352
-5.5384436 2.1771851 -1.8569512
-4.9651442 1.9518186 -1.5297874
-4.973444 1.9550813 -1.3989609
-4.9771738 1.9565476 -1.2671539
-4.9758959 1.9560452 -1.1364454
-4.9643507 1.9515067 -1.0050057
-4.9676785 1.9708556 -0.87804478
-4.9687147 1.9712667 -0.75125647
-4.9595809 1.9676429 -0.62396157
-4.9551287 1.9658766 -0.49734345
-4.9626694 1.9688681 -0.37333664
-4.9545312 1.9656395 -0.24856919
-5.36237 2.1274438 -2.4096644
-4.9697299 1.9716694 -0.12413134
-5.0253825 1.9937488 -2.1111414
-4.9320297 1.9567124 0
-5.0381312 1.9988067 -1.9727721
-5.4368625 2.1569977 -1.9764023
-4.9679232 1.9709526 -1.5325438
-4.9762697 1.974264 -1.4014935
-4.9818563 1.9764805 -1.2699206
-4.9806366 1.9759966 -1.1389403
-4.9673295 1.9707171 -1.0068572
-4.9684434 1.9902539 -0.87934172
-4.9676661 1.9899426 -0.75209153
-4.9640923 1.988511 -0.62535542
-4.9578247 1.9860003 -0.49827239
-4.965373 1.989024 -0.37403423
-4.9554038 1.9850304 -0.24894185
-5.3518586 2.143842 -2.4081225
-4.972445 1.9918568 -0.12436345
-4.9310832 1.9752883 0
-5.0436878 2.020395 -1.9775604
-5.2485147 2.1024446 -1.9104582
-4.9684982 1.9902759 -1.5347489
-4.9678988 1.9900358 -1.4009869
-4.9843073 1.9966086 -1.2722261
-4.9740567 1.9925025 -1.1389403
-4.9680648 1.9901022 -1.0083383
-4.9749742 2.011029 -0.88161141
-4.9760795 2.0114758 -0.75431824
-4.9615049 2.0055842 -0.62582004
-4.966331 2.0075352 -0.49975863
-4.9547 2.0028336 -0.24922137
-5.3468089 2.1613355 -2.4088936
-4.9304166 1.9930176 0
-5.0512552 2.0418639 -1.9830328
-5.0152745 2.0273194 -1.8278679
-5.0092816 2.0248971 -1.6859711
-4.9693513 2.0087559 -1.5369539
-4.9634171 2.0063572 -1.4014935
-4.9906406 2.0173619 -1.2754539
-4.9804688 2.0132501 -1.1418511
-4.976366 2.0115917 -1.0113008
-4.9722862 2.0281408 -0.88225996
-4.9679012 2.0263524 -0.75403994
-4.9712515 2.0277185 -0.37542936
-4.9594822 2.0229182 -0.24978037
-5.339992 2.178124 -2.4088936
-4.9690876 2.0268362 -0.12459555
-5.728796 2.3367128 -2.4159546
-4.9315376 2.0115199 0
-5.0587363 2.0634029 -1.988505
-5.5141544 2.2491629 -2.0122554
-5.5173259 2.2504566 -1.8593342
-4.9736958 2.0287158 -1.5402616
-4.9624634 2.0241342 -1.4030131
-4.9896836 2.0352368 -1.2768372
-4.9831758 2.0325825 -1.1439302
-4.9754806 2.0294437 -1.0124117
-4.9721432 2.0473387 -0.75571001
-4.9760022 2.0489278 -0.62930453
-4.9643116 2.0441139 -0.50087333
-4.9755692 2.0487494 -0.37626642
-4.9582887 2.0416338 -0.25005984
-5.3293271 2.1944134 -2.4073517
-4.9660378 2.0448248 -0.1246884
-5.7192936 2.3549869 -2.4152272
-4.9285398 2.0293844 0
-5.0692449 2.0873215 -1.9953455
-4.9776082 2.0495889 -1.5435693
-4.9557242 2.0405781 -1.4030131
-4.988306 2.0539939 -1.2782207
-4.9700212 2.06475 -0.8842054
-4.9730024 2.0659888 -0.75682336
-4.9658718 2.0630262 -0.62883991
-4.9707379 2.0650477 -0.50217384
-4.9764781 2.0674326 -0.3768245
-4.9518499 2.0572011 -0.25005984
-5.3207026 2.2104375 -2.4065809
-4.9688215 2.0642517 -0.12492051
-5.7049851 2.3700843 -2.4123173
-4.9276805 2.0471601 0
-5.0852246 2.1126103 -2.0042379
-5.5152631 2.291266 -2.0180175
-5.5273623 2.2962925 -1.8676748
-4.9764709 2.0674295 -1.5452231
-4.954649 2.0583639 -1.4045326
-4.9843988 2.0707231 -1.1472567
-4.9713469 2.0653009 -1.0142633
-4.9813466 2.0888519 -0.88744783
-4.9770827 2.087064 -0.75849348
-4.968163 2.0833235 -0.63000143
-4.9601903 2.0799804 -0.50180227
-4.9769545 2.0870101 -0.37738252
-4.9468436 2.0743837 -0.25015303
-5.313343 2.2280695 -2.4065809
-4.973012 2.0853567 -0.12519903
-5.7091208 2.394033 -2.4174097
-4.9393086 2.071224 0
-5.1093884 2.1425443 -2.0165508
-5.5181189 2.3139391 -2.0218589
-5.5144358 2.3123946 -1.8658875
-4.9784517 2.0876379 -1.5479795
-4.96207 2.0807686 -1.4085846
-4.989296 2.0921853 -1.2819097
-4.9865255 2.0910234 -1.149336
-4.9771581 2.0870955 -1.0168554
-4.9762096 2.1061287 -0.88777202
-4.9774303 2.1066451 -0.75960684
-4.9575677 2.0982385 -0.62953681
-4.9514313 2.0956414 -0.50161648
-4.9553075 2.0972819 -0.37626642
-4.9436164 2.0923338 -0.25033936
-5.3093243 2.2471159 -2.4081225
-4.958704 2.0987196 -0.12501335
-5.6977191 2.4114997 -2.4159546
-4.9379387 2.0899308 0
-5.1316781 2.1719289 -2.0281794
-5.5173945 2.3351793 -2.0244198
-5.5137696 2.3336451 -1.8682705
-4.9892068 2.1116295 -1.5534922
-4.955143 2.0972123 -1.4085846
-4.991291 2.1125116 -1.2842152
-4.9921751 2.1128857 -1.1522467
-4.9738297 2.1051214 -1.017596
-4.9695687 2.1217506 -0.88777202
-4.9744306 2.1238263 -0.76016355
-4.9692211 2.1216021 -0.63185984
-4.955812 2.1158769 -0.5027312
-4.972548 2.1230223 -0.37808007
-4.9443693 2.1109915 -0.25071204
-5.2988443 2.2623341 -2.4065809
-4.96312 2.1189971 -0.12529188
-5.6832619 2.4264607 -2.4130447
-4.951582 2.1140709 0
-5.1766825 2.2101774 -2.0487006
-5.5135164 2.3539882 -2.0257001
-5.5187025 2.3562021 -1.8724407
-4.994925 2.1325762 -1.5573511
-4.9431915 2.1104887 -1.407065
-4.9935794 2.1320016 -1.2865208
-4.9945083 2.1323984 -1.1543257
-4.9744225 2.1238227 -1.0190772
-4.9683161 2.1396954 -0.88874477
-4.9877424 2.148062 -0.76322532
-4.9680042 2.1395612 -0.63255674
-4.9582849 2.1353753 -0.50366014
-4.9713507 2.1410024 -0.37849861
-4.9230332 2.1201937 -0.24996668
-5.2917104 2.2789712 -2.4065809
-4.9674563 2.1393251 -0.12557042
-5.6858768 2.4487259 -2.4174097
-4.9651213 2.1383195 0
-6.082828 2.6196802 -2.410558
-5.5234962 2.378794 -2.0321026
-4.9899664 2.1490197 -1.5579025
-4.9471984 2.1306009 -1.410104
-4.997581 2.1522989 -1.2892876
-4.9967685 2.1519489 -1.156405
-4.9821668 2.1456604 -1.0220397
-4.9724312 2.1600106 -0.89069021
-4.9773374 2.1621418 -0.76266867
-4.9703684 2.1591146 -0.63371825
-4.9771228 2.1620486 -0.50626111
-4.9774098 2.1621733 -0.37947521
-4.9493322 2.1499765 -0.25164372
-5.2845254 2.2955832 -2.4065809
-4.9827185 2.1644793 -0.12612748
-5.6730299 2.4643488 -2.4152272
-4.9583793 2.1539063 0
-6.0952539 2.6477618 -2.4187665
-4.9867172 2.1662164 -1.5590049
-4.981297 2.163862 -1.4217536
-5.0068598 2.1749661 -1.2934376
-4.9935722 2.1691942 -1.1572366
-4.9790068 2.1628668 -1.0227802
-4.973897 2.1813173 -0.89231139
-4.9715729 2.1802983 -0.76294702
-4.9791746 2.1836319 -0.635809
-4.9731927 2.1810086 -0.50663269
-4.9771409 2.18274 -0.38003328
-4.9582629 2.1744611 -0.25248218
-5.2781696 2.3147571 -2.4073517
-4.9659762 2.1778438 -0.12589537
-5.6575685 2.4811435 -2.4123173
-4.9654832 2.1776276 0
-6.0911374 2.6712866 -2.4208186
-6.3179474 2.7707548 -2.3310919
-5.5461154 2.4322655 -1.8897175
-4.9984927 2.1921039 -1.5650691
-4.994976 2.1905618 -1.4278316
-4.9903259 2.1885223 -1.291132
-4.9967189 2.1913259 -1.1597315
-4.985826 2.1865489 -1.0257427
-4.9688249 2.1977313 -0.89263558
-4.9719443 2.199111 -0.76406038
-4.9632063 2.1952462 -0.63464743
-4.9754219 2.2006493 -0.50756156
-4.9812064 2.2032077 -0.38087034
-4.9641976 2.1956847 -0.25313437
-5.2691841 2.3305814 -2.4065809
-4.9682536 2.1974785 -0.12612748
-5.6531534 2.5004125 -2.4137721
-4.9604468 2.1940255 0
-6.0809965 2.6896493 -2.4201345
-5.5454307 2.4527664 -1.8921005
-4.9950976 2.2093518 -1.5661715
-4.9916081 2.2078085 -1.4288447
-4.9941049 2.2089126 -1.2938987
-4.9915996 2.2078044 -1.1601474
-4.9753375 2.2006118 -1.0250021
-4.9727106 2.2181532 -0.89458108
-4.9722457 2.2179461 -0.76517373
-4.9544711 2.2100174 -0.63441515
-4.9775777 2.2203245 -0.5084905
-4.9742608 2.2188449 -0.38087034
-4.9645734 2.2145236 -0.25350705
-5.2584658 2.3456187 -2.4050393
-4.9741077 2.2187767 -0.12645243
-5.6469722 2.5189178 -2.4144998
-4.964489 2.2144859 0
-6.0742335 2.7095046 -2.4208186
-5.5411854 2.4717302 -1.8932921
-4.9933996 2.2273819 -1.5678253
-4.9899487 2.2258427 -1.4303641
-4.985363 2.2237973 -1.2934376
-4.9899988 2.2258651 -1.1613948
-4.9719896 2.2178319 -1.0257427
-4.9693165 2.2353852 -0.89522958
-4.9688654 2.2351825 -0.7657305
-4.9638081 2.2329073 -0.6365059
-4.972393 2.2367692 -0.50867629
-4.9818211 2.2410102 -0.38198647
-4.977633 2.2391262 -0.25453186
-5.247704 2.3606145 -2.4034975
-4.9744058 2.2376745 -0.12663811
-5.640729 2.5374119 -2.4152272
-4.9666266 2.2341752 0
-6.0622625 2.7270336 -2.4194505
-5.542098 2.4930439 -1.8962708
-4.9951434 2.2470033 -1.5705818
-4.9952822 2.2470655 -1.4339097
-4.9890008 2.24424 -1.2962043
-4.9972534 2.2479525 -1.1647214
-4.9775438 2.2390862 -1.0283349
-4.9730535 2.2558765 -0.89717501
-4.9780521 2.2581441 -0.76823562
-4.9694324 2.2542338 -0.63813198
-4.976223 2.2573144 -0.50979102
-4.9856582 2.2615945 -0.38282353
-4.9705744 2.2547519 -0.25453186
-5.2318597 2.3732762 -2.3996434
-4.9709935 2.2549422 -0.12673095
-5.6293368 2.55358 -2.4137721
-4.9650478 2.2522449 0
-6.0588007 2.7483933 -2.4215026
-5.6252069 2.5517063 -2.0871627
-5.5464096 2.5159624 -1.9004409
-4.9968138 2.2666547 -1.5733382
-4.993485 2.2651446 -1.4354292
-4.9961047 2.2663331 -1.2998933
-4.9937305 2.2652562 -1.1655531
-4.9830141 2.2603951 -1.0309269
-4.9799018 2.2789254 -0.89976895
-4.9723372 2.2754636 -0.76851392
-4.9655418 2.2723539 -0.63859653
-4.9777637 2.2779469 -0.5107199
-4.9799452 2.2789452 -0.38296303
-4.9739695 2.2762108 -0.25509086
-5.2306733 2.3936846 -2.4027267
-4.9853063 2.2813988 -0.12728801
-4.9593706 2.2695298 0
-6.0393991 2.7637775 -2.4173985
-5.5119953 2.5224245 -1.8915048
-4.9997587 2.2880125 -1.5766457
-4.9929829 2.2849119 -1.4374552
-4.9921007 2.284508 -1.3008155
-5.0057583 2.2907581 -1.1701272
-4.9826398 2.2801783 -1.0324081
-4.9866514 2.3020446 -0.90236288
-4.9737544 2.2960908 -0.76990563
-4.9688005 2.2938037 -0.63999039
-4.9737983 2.2961109 -0.51109147
-4.9814172 2.2996283 -0.38366061
-4.9319301 2.276783 -0.25332069
-5.2227063 2.4110172 -2.4027267
-5.6055112 2.5877357 -2.4108622
-4.9663434 2.2926695 0
-6.0353203 2.7861533 -2.4194505
-6.3289628 2.921711 -2.3554208
-5.3839941 2.4854743 -1.8503981
-5.0008717 2.3086092 -1.5794022
-4.9941616 2.3055115 -1.4399878
-4.9968657 2.3067598 -1.3040433
-4.9999104 2.3081656 -1.1705428
-4.9839735 2.3008082 -1.0342597
-4.9811845 2.318531 -0.90268713
-4.9701085 2.3133757 -0.77046233
-4.9705749 2.3135929 -0.64115191
-4.9900303 2.3226485 -0.51350665
-4.9868307 2.3211591 -0.38463721
-5.2217984 2.4305267 -2.4058101
-4.9668446 2.3118565 -0.12719516
-5.5956655 2.6045461 -2.4101348
-4.9645567 2.3107915 0
-6.0265379 2.805099 -2.4194505
-6.3300595 2.9463756 -2.3592622
-5.3432727 2.4870679 -1.8390788
-5.0040522 2.329175 -1.5827098
-4.992157 2.3236382 -1.4415072
-4.9984164 2.3265519 -1.3063489
-4.9908614 2.3230352 -1.1701272
-4.9802847 2.3181121 -1.0350002
-4.9810219 2.3375235 -0.90398407
-4.9753661 2.3348694 -0.77241075
-4.9686766 2.3317301 -0.6418488
-4.982708 2.338315 -0.51350665
-4.9777064 2.3359678 -0.38449767
-4.9754019 2.3348861 -0.25630203
-5.2174778 2.448489 -2.4073517
-4.9740367 2.3342457 -0.12756655
-5.5874543 2.6221139 -2.4101348
-4.971756 2.3331752 0
-6.0125904 2.8216243 -2.4173985
-6.3482156 2.9791284 -2.3695059
-5.3129635 2.4932992 -1.831334
-5.0001903 2.346519 -1.5838124
-4.9970922 2.3450651 -1.4450527
-4.9998908 2.3463786 -1.3086544
-4.995935 2.344522 -1.1730379
-4.9854312 2.3395927 -1.0375924
-4.9857292 2.3599386 -0.90625376
-4.9729667 2.3538978 -0.77324581
-4.9788713 2.3566928 -0.64417183
-4.9839258 2.3590851 -0.51443559
-4.9861627 2.3601439 -0.3857533
-4.9838834 2.3590653 -0.25714055
-5.2043257 2.4634089 -2.4050393
-4.9716902 2.3532937 -0.12770581
-5.5787287 2.6406283 -2.4101348
-4.962184 2.348794 0
-6.0048995 2.8423517 -2.4180822
-5.4391909 2.5745797 -2.0333831
-5.2787819 2.498652 -1.8223978
-5.0080209 2.3704903 -1.5887738
-4.9927855 2.3632786 -1.4460657
-4.9973593 2.3654439 -1.3100379
-4.9987421 2.3660984 -1.1755328
-4.9794221 2.3569534 -1.0379628
-4.9850006 2.3798578 -0.90755069
-4.9704962 2.3729334 -0.77408087
-4.9692369 2.3723323 -0.6439395
-4.9814677 2.3781712 -0.51499295
-4.9855113 2.3801017 -0.38631135
-4.9976687 2.3859057 -0.25825855
-5.1961288 2.4806514 -2.4050393
-5.58003 2.6639271 -2.4144998
-4.9742222 2.3747122 0
-5.9801779 2.8549592 -2.411926
-5.3741984 2.5656621 -2.0122554
-5.0122781 2.3928804 -1.5926328
-4.9988909 2.3864892 -1.4501178
-5.0035391 2.3887081 -1.3137269
-4.9944005 2.3843453 -1.1763645
-4.9786744 2.3768375 -1.039444
-4.9903665 2.4006286 -0.90982044
-4.9741416 2.3928235 -0.77575094
-4.9729161 2.3922341 -0.64533329
-4.9725943 2.3920794 -0.51480716
-4.9874167 2.3992095 -0.38700894
-4.9707632 2.3911984 -0.25723371
-5.1854191 2.4944592 -2.4034975
-4.9658155 2.3888183 -0.12793791
-5.5586696 2.6740122 -2.4086797
-4.9761653 2.3937972 0
-5.17874 2.4912462 -1.9418297
-5.2165251 2.5094228 -1.8063126
-5.0086203 2.4094098 -1.5937352
-4.9987612 2.4046669 -1.4521438
-4.9999361 2.4052322 -1.314649
-4.9978805 2.4042432 -1.1788594
-4.9857683 2.3984168 -1.0424063
-4.9877052 2.4197471 -0.91079307
-4.9822173 2.4170845 -0.77825606
-4.9774671 2.4147801 -0.64695942
-4.9753852 2.41377 -0.51592189
-4.9866138 2.4192176 -0.38756695
-4.980782 2.416388 -0.25816539
-5.1771193 2.5116398 -2.4034975
-4.9830527 2.4174898 -0.12858781
-5.5581532 2.6964955 -2.4123173
-4.9753981 2.4137762 0
-5.3195786 2.5807528 -2.1519907
-5.1806912 2.5133727 -1.7967805
-5.0057926 2.4285219 -1.595389
-5.0012045 2.4262962 -1.4551828
-5.0006881 2.4260454 -1.3169546
-5.0022016 2.4267797 -1.1817702
-4.98663 2.4192255 -1.0442579
-4.9871707 2.4388728 -0.91209012
-4.978157 2.4344649 -0.77881271
-4.9769945 2.4338965 -0.6478886
-4.9856668 2.4381373 -0.51777971
-4.9879508 2.4392543 -0.38826454
-4.9803448 2.4355347 -0.25853804
-5.1642299 2.52546 -2.401185
-4.9826174 2.4366462 -0.1287735
-5.5479808 2.7131255 -2.4115896
-4.9803672 2.4355457 0
-5.1199918 2.5038264 -1.9258238
-5.1316075 2.5095067 -1.7824825
-5.0050468 2.4476149 -1.5975943
-5.0005097 2.4453962 -1.4572088
-5.0070276 2.4485836 -1.3206435
-4.9998245 2.4450612 -1.1830176
-4.9825363 2.4366064 -1.0449984
-4.9861355 2.4588904 -0.91338706
-4.9771614 2.4544649 -0.77992612
-4.9795847 2.4556601 -0.64928246
-4.9864831 2.4590619 -0.51870859
-4.9941483 2.462842 -0.38938063
-4.9883666 2.4599907 -0.25937656
-5.1525154 2.5409403 -2.3996434
-4.9763026 2.4540415 -0.12881991
-5.5372815 2.7306857 -2.4108622
-4.9794374 2.4555874 0
-5.3206806 2.6238699 -2.0045724
-5.1215444 2.5256667 -1.7818868
-5.0106959 2.4710023 -1.6020044
-5.001049 2.4662452 -1.4597414
-5.0023708 2.4668968 -1.3215659
-5.0022159 2.4668205 -1.1855125
-4.9867673 2.4592023 -1.0475906
-4.9903231 2.4815629 -0.91565675
-4.9778614 2.4753659 -0.78131783
-4.9767504 2.4748132 -0.64997935
-4.978301 2.4755843 -0.51870859
-4.9859538 2.4793899 -0.38938063
-4.9801812 2.4765193 -0.25937656
-5.1490183 2.560478 -2.4019558
-4.9860406 2.4794331 -0.12928413
-5.5248594 2.7473743 -2.4094074
-4.9766393 2.4747581 0
-5.2217398 2.5966403 -2.122577
-5.2491775 2.6102846 -1.9808838
-5.0892076 2.5307355 -1.7735463
-5.0110817 2.4918854 -1.6047609
-5.0049701 2.4888463 -1.4632869
-5.0046177 2.4886711 -1.3243326
-4.9992628 2.4860082 -1.1867601
-4.9891434 2.4809761 -1.0498124
-4.9895601 2.5007644 -0.91695368
-4.9824548 2.4972031 -0.78326625
-4.9778309 2.4948854 -0.65114087
-4.9847422 2.4983494 -0.52019489
-4.9941931 2.5030863 -0.39063627
-4.9955959 2.5037892 -0.26058772
-5.1425996 2.5774674 -2.4027267
-4.9925275 2.5022514 -0.12965551
-5.5195327 2.766386 -2.4108622
-4.9777808 2.4948604 0
-5.1547508 2.5835576 -2.0986354
-5.1884408 2.6004429 -1.9610367
-5.0283203 2.520191 -1.7550781
-5.0186973 2.5153677 -1.6097223
-5.002316 2.5071573 -1.4648064
-5.0002546 2.5061243 -1.3252548
-5.0054207 2.5087135 -1.1900867
-4.9883537 2.5001597 -1.0512937
-4.9869647 2.5190957 -0.91792643
-4.9781213 2.5146286 -0.78382301
-4.9770613 2.5140932 -0.65207005
-4.9839792 2.5175874 -0.52093804
-4.9952092 2.5232604 -0.39133382
-5.1344771 2.5936096 -2.4027267
-5.5041637 2.7803514 -2.4079523
-4.9752741 2.5131905 0
-5.1197691 2.58618 -2.0876908
-5.1379647 2.5953712 -1.9450308
-5.0578699 2.5549123 -1.7681847
-5.019351 2.5354552 -1.6124786
-5.0013232 2.5263486 -1.4668324
-5.0062542 2.5288396 -1.3289437
-5.0010071 2.5261891 -1.1909182
-4.9910011 2.5211346 -1.0535154
-4.9926524 2.5427847 -0.92052037
-4.9856381 2.5392122 -0.78632808
-4.9775472 2.5350916 -0.65323156
-4.9862494 2.5395238 -0.52205271
-4.9939256 2.5434332 -0.39189187
-5.1225591 2.608947 -2.401185
-4.9655747 2.5289938 -0.12937698
-5.4152284 2.7580049 -2.3730333
-4.9811697 2.5369365 0
-5.094418 2.5946145 -2.0808504
-5.1276412 2.6115353 -1.9443905
-5.1973796 2.6470535 -1.8200147
-5.0177674 2.5555761 -1.6146837
-5.0049858 2.5490663 -1.4703779
-5.0082455 2.5507264 -1.3317105
-5.0048046 2.548974 -1.1938291
-4.9896188 2.5412395 -1.0549967
-4.9934177 2.562963 -0.92214155
-4.9829226 2.5575762 -0.78716308
-4.9819293 2.5570664 -0.6548577
-4.985333 2.5588133 -0.52279586
-4.9912357 2.5618429 -0.39231038
-4.9766636 2.5543637 -0.26086721
-5.1209049 2.6283982 -2.4042685
-5.1927285 2.6652629 -2.2791889
-4.9820719 2.5571396 0
-5.0962734 2.6157556 -2.0849547
-5.0907555 2.6129234 -1.9335066
-5.1720524 2.6546507 -1.8140572
-5.0165558 2.5748391 -1.6168888
-5.0090022 2.5709622 -1.4739234
-5.0088639 2.5708911 -1.334016
-5.0054746 2.5691514 -1.1959082
-4.9886041 2.5604923 -1.0564779
-4.9919024 2.5831358 -0.92343849
-4.9849677 2.5795476 -0.7888332
-4.9804797 2.577225 -0.65578687
-4.9892001 2.5817378 -0.52409631
-5.000432 2.5875499 -0.39370552
-4.985909 2.5800345 -0.26179889
-5.1121607 2.6453655 -2.4042685
-4.9953098 2.5848992 -0.13058394
-5.1044407 2.6413708 -2.2442698
-4.9859986 2.580081 0
-5.0942478 2.636096 -2.0876908
-5.0921593 2.6350155 -1.937348
-5.1310043 2.6551163 -1.8027382
-5.0199418 2.5976453 -1.6207477
-5.0124779 2.5937829 -1.4774688
-5.0124102 2.5937479 -1.3372438
-5.0073524 2.5911307 -1.1984031
-4.9905591 2.5824409 -1.0586997
-4.9977622 2.6061063 -0.92603248
-4.9838634 2.5988586 -0.78994656
-4.9846878 2.5992885 -0.65741301
-4.9828305 2.59832 -0.5242821
-4.9975853 2.606014 -0.39412406
-4.9884076 2.6012282 -0.26235789
-5.1070967 2.6631193 -2.4058101
-4.9942565 2.6042781 -0.13076963
-4.9885087 2.6012809 0
-5.0842748 2.6512187 -2.0870068
-5.0905762 2.6545045 -1.939909
-5.1057086 2.6623952 -1.7967805
-5.0168705 2.6160703 -1.6224015
-5.011167 2.6130962 -1.479495
-5.0128651 2.6139815 -1.3395495
-5.0043912 2.6095629 -1.1996506
-4.9946208 2.6044681 -1.0612919
-5.0000324 2.6273024 -0.92797792
-4.9809341 2.6172671 -0.79078162
-4.983531 2.6186316 -0.65834218
-4.9905081 2.622298 -0.52595419
-4.9964385 2.6254141 -0.39468214
-4.9908218 2.6224627 -0.26291686
-5.1003389 2.6800094 -2.4065809
-4.9966698 2.6255355 -0.13104816
-5.0943408 2.6768575 -2.2471797
-4.9873934 2.6206613 0
-5.0925574 2.6759205 -2.0938473
-5.0788569 2.6687214 -1.9386284
-5.0188384 2.6371841 -1.6257092
-5.0114961 2.6333261 -1.4820274
-5.0166874 2.6360538 -1.3427773
-5.0100222 2.6325517 -1.2029772
-4.9951124 2.6247175 -1.0631434
-5.0017567 2.6494102 -0.9299233
-4.9862294 2.6411855 -0.79300839
-4.9800863 2.6379318 -0.65903908
-4.9888244 2.6425602 -0.52669728
-5.0018096 2.6494384 -0.39579824
-4.999753 2.648349 -0.26384854
-5.0881624 2.6951792 -2.4050393
-5.0091386 2.6533206 -0.13160521
-5.0870824 2.6946073 -2.2479072
-4.9892802 2.6428018 0
-5.0836563 2.6927924 -2.0938473
-5.0666313 2.6837742 -1.937348
-5.0985322 2.7006721 -1.8003551
-5.0219579 2.660111 -1.6295681
-5.0147047 2.6562691 -1.4855729
-5.0096383 2.6535852 -1.3432384
-5.0064516 2.6518972 -1.2042246
-4.9950657 2.6458664 -1.0649949
-5.0038548 2.6706865 -0.93186879
-4.9866428 2.6615 -0.7944001
-4.9857941 2.661047 -0.66089749
-4.9927959 2.664784 -0.52799785
-5.0022621 2.6698363 -0.39649582
-4.9984584 2.6678061 -0.26422122
-5.0113621 2.6746931 -0.13188374
-5.0933843 2.7184706 -2.2544546
-4.9844818 2.6603465 0
-5.0917511 2.7175989 -2.1006877
-5.0748901 2.7085998 -1.9437504
-5.0984445 2.7211714 -1.8033339
-5.0254488 2.6822116 -1.633427
-5.0097489 2.6738324 -1.486586
-5.0201626 2.6793902 -1.3483106
-5.003273 2.6703758 -1.2054721
-4.9971323 2.6670985 -1.0672168
-4.9984469 2.6891353 -0.93251729
-4.9899988 2.6845903 -0.79634851
-4.9821906 2.6803894 -0.66159439
-4.9909458 2.6850998 -0.52874094
-5.0056801 2.6930268 -0.39747241
-5.0001407 2.6900465 -0.26478022
-5.0657763 2.725358 -2.4027267
-4.9989433 2.6894023 -0.13179091
-5.0843415 2.7353461 -2.2544546
-4.9861999 2.6825466 0
-5.095952 2.7415926 -2.1061602
-5.0842347 2.7352886 -1.9507929
-5.0910735 2.7389679 -1.8039296
-5.028378 2.7052381 -1.6372859
-5.0127816 2.6968474 -1.4901315
-5.0215325 2.7015553 -1.3510774
-5.0098953 2.6952946 -1.2092146
-4.9986458 2.6892421 -1.0694386
-4.9969139 2.7085874 -0.93381423
-4.9885049 2.7040293 -0.79746199
-4.9859695 2.7026551 -0.66322052
-4.9982414 2.709307 -0.53041297
-5.0059648 2.7134933 -0.39816993
-5.0057154 2.7133582 -0.26552555
-5.057189 2.7412596 -2.4027267
-5.0010161 2.7108109 -0.13206942
-5.0740848 2.7504179 -2.253727
-4.9918141 2.7058232 0
-5.1434903 2.7880394 -2.1294174
-5.0956054 2.7620833 -1.9584757
-5.094193 2.7613175 -1.8080997
-5.036756 2.7301841 -1.6427988
-5.0127892 2.7171926 -1.492664
-5.0215755 2.7219551 -1.3533831
-5.0082822 2.7147496 -1.2108778
-4.9953556 2.7077427 -1.0705495
-4.9953084 2.7280562 -0.93511117
-4.9904146 2.7253835 -0.79913199
-4.9896588 2.7249706 -0.66484666
-4.9897056 2.7249963 -0.53041297
-5.0009174 2.7311194 -0.39844897
-5.0006733 2.7309861 -0.2657119
-5.048552 2.757134 -2.4027267
-5.0135331 2.7380092 -0.13262649
-5.0719595 2.7699172 -2.2566371
-4.9938207 2.7272437 0
-5.2798572 2.883455 -2.1896129
-5.2681627 2.8770683 -2.0282612
-5.0905199 2.7800534 -1.8098871
-5.0365906 2.7506013 -1.6455551
-5.0127187 2.7375643 -1.4951966
-5.0198312 2.7414486 -1.3552275
-5.0134645 2.7379715 -1.2142043
-4.9988995 2.7300172 -1.0731417
-4.9983368 2.7512681 -0.93738085
-4.9882898 2.7457378 -0.8002454
-4.9875555 2.7453339 -0.66577584
-4.9963422 2.7501702 -0.53208506
-5.0040679 2.7544227 -0.39942557
-5.0055909 2.7552612 -0.26645723
-5.0009222 2.7526913 -0.13253364
-5.0709062 2.7912128 -2.2602744
-5.0057745 2.755362 0
-5.2817907 2.9072917 -2.1944013
-5.2419934 2.8853858 -2.0218589
-5.0862904 2.7996809 -1.8116744
-5.0358624 2.7719238 -1.6483115
-5.0103927 2.7579041 -1.4972225
-5.0243516 2.7655876 -1.3589164
-5.0112119 2.7583551 -1.2158676
-4.9984274 2.751318 -1.0749931
-4.9982986 2.7717416 -0.9390021
-4.9900317 2.7671571 -0.80191547
-4.9928045 2.7686949 -0.66763425
-4.9946442 2.7697151 -0.53282815
-5.0041142 2.7749667 -0.40012312
-5.0004053 2.7729099 -0.26664355
-4.995748 2.7703271 -0.13262649
-5.0865521 2.8206813 -2.2711866
-4.988349 2.7662241 0
-5.2097049 2.8889742 -2.0128956
-5.0874887 2.8212008 -1.8152488
-5.0489874 2.7998502 -1.6554781
-5.016933 2.7820749 -1.5017811
-5.0207448 2.7841887 -1.3602997
-5.009366 2.777879 -1.217531
-5.0000725 2.7727253 -1.077215
-5.0080299 2.7988925 -0.94256872
-4.9946589 2.7914197 -0.80414224
-4.9905314 2.789113 -0.66856343
-4.9941235 2.7911203 -0.53375709
-5.0018511 2.7954395 -0.4006812
-4.9911828 2.7894769 -0.26664355
-5.0057325 2.7976084 -0.13313712
-5.0901799 2.8448045 -2.2770064
-4.9931149 2.7905567 0
-5.2809529 2.9514241 -2.2019255
-5.2067122 2.9099321 -2.0154567
-5.0897713 2.8445761 -1.819419
-5.0665255 2.8315847 -1.6642984
-5.0178127 2.8043602 -1.5048201
-5.0216775 2.8065197 -1.3630664
-5.0154958 2.8030651 -1.2212733
-5.0011444 2.7950444 -1.0794368
-5.0043712 2.8175168 -0.94354147
-4.9962196 2.8129272 -0.80581236
-4.9938617 2.8115997 -0.67018962
-4.9940062 2.8116813 -0.53468603
-5.0086908 2.8199487 -0.4019368
-5.001544 2.8159249 -0.2676684
-5.0038886 2.8172448 -0.13332282
-5.0958281 2.8690078 -2.2835536
-4.9982653 2.814079 0
-5.2814808 2.9735324 -2.2060299
-5.2140551 2.9355712 -2.0218589
-5.102437 2.8727288 -1.8271638
-5.0927858 2.867295 -1.6758753
-5.0224657 2.8277042 -1.508872
-5.0247064 2.8289654 -1.3662943
-5.0134835 2.8226471 -1.2229367
-4.9991894 2.8145993 -1.080918
-5.0023613 2.8371191 -0.9448384
-4.9959712 2.8334951 -0.80720401
-4.9970994 2.8341348 -0.67181569
-4.9938092 2.8322687 -0.53561497
-5.0032778 2.8376389 -0.40221584
-4.9961481 2.8335953 -0.26785475
-5.0089264 2.8408425 -0.13369419
-5.0981331 2.8914366 -2.288646
-4.9946189 2.8327279 0
-5.2064548 2.952872 -2.0224991
-5.1016898 2.8934541 -1.8301425
-5.1004753 2.892765 -1.681388
-5.0270209 2.8511052 -1.5129242
-5.0242581 2.8495381 -1.3685999
-5.0216079 2.8480351 -1.2270949
-5.0005798 2.8361089 -1.0831399
-4.9997797 2.8576095 -0.94613546
-5.0020232 2.8588917 -0.80970919
-4.9962969 2.855619 -0.67297715
-4.9999499 2.8577068 -0.537287
-5.0094299 2.8631251 -0.40347144
-5.0023341 2.8590696 -0.26869324
-5.0966043 2.9129493 -2.2922835
-4.995616 2.8552299 0
-5.3486471 3.0570037 -2.2422841
-5.1982789 2.9710612 -2.0231392
-5.113615 2.9226718 -1.8378872
-5.1158915 2.9239728 -1.6896571
-5.027617 2.8735199 -1.5159631
-5.0282979 2.873909 -1.3722888
-5.0223269 2.8704963 -1.2295899
-5.0116239 2.8643789 -1.0875834
-5.0095921 2.8841333 -0.94970208
-5.0015993 2.8795319 -0.81110084
-4.9976306 2.8772469 -0.674371
-5.0013027 2.8793609 -0.53840172
-5.0125146 2.8858159 -0.40444803
-5.0071797 2.8827446 -0.26943856
-5.0078049 2.8831046 -0.1341584
-5.0971155 2.9345224 -2.2966483
-4.9970217 2.8768964 0
-5.3406463 3.0747285 -2.2429681
-5.2036991 2.9958849 -2.0289013
-5.14081 2.9596784 -1.8509938
-5.1133456 2.9438665 -1.6918622
-5.0235958 2.8921957 -1.5174826
-5.0192451 2.8896906 -1.3722888
-5.0217614 2.8911393 -1.2316689
-5.0145245 2.8869729 -1.0901756
-5.0051217 2.9037011 -0.95067477
-5.0023017 2.9020653 -0.81277096
-4.9983716 2.899785 -0.6757648
-4.9986167 2.8999274 -0.53914487
-5.0115457 2.907428 -0.40514559
-5.0027766 2.9023409 -0.26971808
-5.0137825 2.9087255 -0.1345762
-5.0938025 2.9551489 -2.2995582
-4.9995637 2.9004767 0
-5.2718987 3.0584707 -2.2183428
-5.2920704 3.0701733 -2.0673153
-5.1557388 2.991081 -1.85993
-5.1201844 2.9704545 -1.6973749
-5.0307131 2.9185479 -1.5225476
-5.0298347 2.9180386 -1.3778223
-5.0222988 2.9136665 -1.2341639
-5.0100231 2.9065447 -1.0912864
-5.0061979 2.9253855 -0.95262027
-5.0102592 2.9277587 -0.81555444
-4.999527 2.9214873 -0.67715865
-4.9980774 2.9206402 -0.54007375
-5.01789 2.9322176 -0.40640122
-5.003983 2.9240911 -0.27027705
-5.0941434 2.9767766 -2.3039229
-4.9956069 2.9191966 0
-5.2281876 3.0551059 -2.2039778
-5.2791271 3.0848725 -2.066035
-5.1430187 3.005337 -1.8587385
-5.0215187 2.9343383 -1.5225476
-5.0357652 2.942663 -1.3819724
-5.0266328 2.9373267 -1.2374904
-5.0110483 2.9282198 -1.0935084
-5.0049725 2.9469771 -0.95424139
-5.0107632 2.9503868 -0.8172245
-4.9983702 2.94309 -0.67832011
-4.9952292 2.9412403 -0.5408169
-5.0115771 2.9508662 -0.40668026
-5.0045886 2.9467511 -0.27083606
-5.0138464 2.9522023 -0.13508683
-5.0970874 3.0012155 -2.3097429
-4.9996867 2.9438648 0
-5.2018332 3.0628908 -2.1971374
-5.2705011 3.103323 -2.0666752
-5.1313796 3.0214071 -1.8581429
-5.1207752 3.0151629 -1.7039902
-5.0334349 2.9637363 -1.5291321
-5.0360413 2.9652708 -1.3847392
-5.0269794 2.9599349 -1.2399855
-5.0114722 2.9508045 -1.0957302
-5.0092692 2.9707398 -0.95683539
-5.0133934 2.9731858 -0.81917292
-5.0027685 2.9668846 -0.68017852
-4.9979534 2.9640291 -0.54211742
-5.0160103 2.9747376 -0.40779635
-5.0159264 2.9746881 -0.27195406
-5.009706 2.970999 -0.1352261
-5.0972481 3.0229156 -2.3141077
-5.188952 3.0773005 -2.1957693
-5.2656145 3.1227653 -2.0685959
-5.1218619 3.037513 -1.8581429
-5.1261597 3.0400615 -1.7089517
-5.0290914 2.9824955 -1.5306517
-5.0417652 2.9900117 -1.3888891
-5.027751 2.9817007 -1.2424804
-5.0157013 2.9745545 -1.0986927
-5.0117726 2.9935458 -0.95910507
-5.00913 2.9919674 -0.82000798
-5.0019503 2.987679 -0.68134004
-5.0005846 2.9868634 -0.54341787
-5.0169177 2.996619 -0.40863341
-5.006557 2.9904306 -0.27195406
-5.0157976 2.99595 -0.1356439
-5.0861268 3.0379579 -2.3133802
-5.1760321 3.0916586 -2.1944013
-5.2443924 3.1324902 -2.0641143
-5.1155725 3.0555458 -1.8593342
-5.1281376 3.063051 -1.7128106
-5.0313249 3.0052245 -1.5341972
-5.0407014 3.0108252 -1.3911947
-5.0267572 3.002496 -1.2445594
-5.0130816 2.9943278 -1.1001738
-5.0153451 3.0182898 -0.96169895
-5.0144534 3.0177531 -0.8225131
-5.0039291 3.0114195 -0.68296611
-4.9991837 3.0085635 -0.54434675
-5.0223374 3.0224979 -0.40988904
-5.0120187 3.0162878 -0.27279258
-5.0951796 3.066335 -2.3221099
-5.139987 3.0933006 -2.1834567
-5.1917658 3.1244617 -2.0474682
-5.1119552 3.0764308 -1.8617173
-5.1311302 3.0879703 -1.7172209
-5.0279627 3.0258832 -1.5362233
-5.0390263 3.0325413 -1.3935003
-5.0251536 3.0241928 -1.2466387
-5.0081768 3.0139756 -1.1012847
-5.015964 3.0401704 -0.96364444
-5.0117216 3.0375991 -0.82362646
-5.0029373 3.032275 -0.68412769
-5.0067358 3.0345771 -0.54620463
-5.0179353 3.0413654 -0.41030759
-5.0059342 3.0340912 -0.2729789
-4.9929252 3.0262065 -0.13555105
-5.1078253 3.0958474 -2.3322947
-5.125421 3.1065123 -2.1814044
-5.1786828 3.1387942 -2.0461876
-5.1104279 3.0974247 -1.864696
-5.1444201 3.1180274 -1.7249388
-5.0316677 3.0496883 -1.5402753
-5.0377955 3.0534024 -1.395806
-5.0306845 3.0490925 -1.250381
-5.0154901 3.0398831 -1.1049879
-5.0159621 3.0629561 -0.96558988
-5.0168357 3.0634894 -0.82613158
-5.0047231 3.056093 -0.68575376
-5.0034451 3.0553126 -0.54694778
-5.0231485 3.0673442 -0.41156319
-5.007782 3.0579607 -0.27363107
-5.1197929 3.1263592 -2.3424795
-5.0063968 3.0571148 0
-5.1231132 3.128387 -2.1848247
-5.1488419 3.144098 -2.0385051
-5.1066475 3.1183324 -1.867079
-5.0330873 3.0734134 -1.5438207
-5.0376091 3.0761747 -1.3985727
-5.0272255 3.0698338 -1.2520443
-5.0171251 3.0636663 -1.1075799
-5.0164008 3.0849032 -0.96753532
-5.0139341 3.0833864 -0.827245
-5.0069418 3.0790863 -0.68737984
-5.0023022 3.0762331 -0.54787666
-5.0202847 3.0872917 -0.41212127
-5.0134654 3.0830984 -0.27446958
-5.2226171 3.2117188 -2.3941302
-5.0069885 3.0791152 0
-5.1180615 3.1474209 -2.1868768
-5.1324821 3.1562891 -2.035944
-5.1065826 3.1403618 -1.8706535
-5.5745292 3.4281318 -1.8765391
-5.0332947 3.0952926 -1.5468599
-5.0395236 3.099123 -1.4018005
-5.0325532 3.0948365 -1.2557868
-5.01752 3.0855918 -1.1098018
-5.0167522 3.1068811 -0.96948081
-5.0126424 3.104336 -0.82863671
-5.0107551 3.1031673 -0.68923831
-5.0044646 3.0992715 -0.54917717
-5.0241303 3.1114507 -0.41323736
-5.017344 3.1072478 -0.27521491
-5.0146432 3.1055751 -0.1369437
-5.2520986 3.2526317 -2.4123173
-5.0091934 3.1022003 0
-5.1129417 3.1664517 -2.1889288
-5.1177087 3.1694038 -2.0340233
